# .PCD v0.7 - Point Cloud Data file format
VERSION 0.7
FIELDS x y z rgb
SIZE 4 4 4 4
TYPE F F F F
COUNT 1 1 1 1
WIDTH 991
HEIGHT 1
VIEWPOINT 0 0 0 1 0 0 0
POINTS 991
DATA ascii
0.14272383 -0.066523813 0.63500005 3.1435721e-39
0.14393334 -0.066523813 0.63500005 3.7889345e-39
0.14514287 -0.066523813 0.63500005 3.699966e-39
0.1463524 -0.066523813 0.63500005 3.8843545e-39
0.14779429 -0.066628575 0.63600004 4.252421e-39
0.14900573 -0.066628575 0.63600004 4.1602253e-39
0.16604191 -0.073647618 0.70300001 4.7097978e-39
0.16738094 -0.073647618 0.70300001 2.2205536e-39
0.17040001 -0.074380957 0.71000004 1.202471e-39
0.17175239 -0.074380957 0.71000004 1.4790579e-39
0.17310476 -0.074380957 0.71000004 1.4801299e-39
0.17470285 -0.074485712 0.71100003 1.4801299e-39
0.1765524 -0.074695244 0.71300006 1.4801299e-39
0.17791049 -0.074695244 0.71300006 1.4801299e-39
0.17926858 -0.074695244 0.71300006 1.2031885e-39
0.18088001 -0.074800007 0.71400005 1.3875784e-39
0.18275048 -0.075009525 0.71600002 1.2961002e-39
0.18411429 -0.075009525 0.71600002 1.7570741e-39
0.18547809 -0.075009525 0.71600002 1.204985e-39
0.18684191 -0.075009525 0.71600002 1.8503544e-39
0.18846856 -0.075114287 0.71700001 2.2205536e-39
0.18983428 -0.075114287 0.71700001 2.6815247e-39
0.1912 -0.075114287 0.71700001 3.2314615e-39
0.041447621 -0.069942862 0.68000001 1.0441307e-38
0.042680003 -0.069839999 0.67900002 1.0533503e-38
0.043908574 -0.069737151 0.67800003 1.05328e-38
0.04506667 -0.069531433 0.67600006 1.05328e-38
0.04635429 -0.069531433 0.67600006 1.0624272e-38
0.047571428 -0.069428571 0.67500001 1.0624272e-38
0.048857141 -0.069428571 0.67500001 1.0622491e-38
0.050142858 -0.069428571 0.67500001 1.0622491e-38
0.051352382 -0.069325715 0.67400002 1.0530291e-38
0.052636191 -0.069325715 0.67400002 1.0438096e-38
0.053760003 -0.069120005 0.67200005 9.9771316e-39
0.055040002 -0.069120005 0.67200005 1.0069327e-38
0.056320004 -0.069120005 0.67200005 9.7005503e-39
0.057600003 -0.069120005 0.67200005 9.3317678e-39
0.058792382 -0.069017142 0.671 9.1473639e-39
0.060070477 -0.069017142 0.671 9.0551683e-39
0.061348572 -0.069017142 0.671 9.053383e-39
0.062626667 -0.069017142 0.671 8.7767961e-39
0.063904762 -0.069017142 0.671 8.6845851e-39
0.065182857 -0.069017142 0.671 8.6845851e-39
0.066460945 -0.069017142 0.671 8.7767695e-39
0.067739047 -0.069017142 0.671 8.6845739e-39
0.069017142 -0.069017142 0.671 8.6845711e-39
0.070295237 -0.069017142 0.671 8.7767667e-39
0.071573332 -0.069017142 0.671 8.7767695e-39
0.072960012 -0.069120005 0.67200005 8.6845739e-39
0.074239999 -0.069120005 0.67200005 8.9600817e-39
0.075520001 -0.069120005 0.67200005 8.6834949e-39
0.076800004 -0.069120005 0.67200005 1.0061009e-38
0.078080006 -0.069120005 0.67200005 1.172053e-38
0.079360001 -0.069120005 0.67200005 1.6306357e-38
0.078839995 -0.067577146 0.65700001 1.9441008e-38
0.080091432 -0.067577146 0.65700001 1.9711207e-38
0.081095241 -0.067371435 0.65500003 1.8604859e-38
0.082342863 -0.067371435 0.65500003 1.6302126e-38
0.083590478 -0.067371435 0.65500003 1.5748952e-38
0.084708579 -0.067268573 0.65400004 1.620381e-38
0.085954294 -0.067268573 0.65400004 1.6388201e-38
0.087066673 -0.067165725 0.65300006 1.6296e-38
0.08831048 -0.067165725 0.65300006 1.6203804e-38
0.089554287 -0.067165725 0.65300006 1.6203807e-38
0.090659045 -0.067062855 0.65200001 1.5742829e-38
0.091619052 -0.066857144 0.65000004 1.5557003e-38
0.092857152 -0.066857144 0.65000004 1.518822e-38
0.094095238 -0.066857144 0.65000004 1.4635768e-38
0.095333338 -0.066857144 0.65000004 1.3806007e-38
0.096422866 -0.066754289 0.64900005 1.2701812e-38
0.097659051 -0.066754289 0.64900005 1.1411073e-38
0.098742858 -0.066651426 0.648 1.132031e-38
0.099977143 -0.066651426 0.648 1.0859332e-38
0.10121143 -0.066651426 0.648 1.0767842e-38
0.10244571 -0.066651426 0.648 1.0306864e-38
0.10368 -0.066651426 0.648 9.8473125e-39
0.10475238 -0.066548571 0.64700001 9.2941387e-39
0.10598476 -0.066548571 0.64700001 8.8352835e-39
0.10721715 -0.066548571 0.64700001 7.8211316e-39
0.10844953 -0.066548571 0.64700001 4.608638e-39
0.10951239 -0.066445716 0.64600003 7.09792e-39
0.11074286 -0.066445716 0.64600003 5.4631358e-39
0.11162667 -0.066239998 0.64400005 1.2101218e-38
0.11285334 -0.066239998 0.64400005 1.29288e-38
0.11408001 -0.066239998 0.64400005 1.145367e-38
0.11530667 -0.066239998 0.64400005 1.136249e-38
0.11255239 -0.063977145 0.62200004 1.2192251e-38
0.11373715 -0.063977145 0.62200004 1.2833708e-38
0.11473715 -0.063874289 0.62100005 1.0528817e-38
0.11592001 -0.063874289 0.62100005 1.0342631e-38
0.11710286 -0.063874289 0.62100005 7.115816e-39
0.11809523 -0.063771427 0.62 7.4806469e-39
0.11927619 -0.063771427 0.62 5.6367623e-39
0.12026285 -0.063668579 0.61900002 5.9093989e-39
0.1214419 -0.063668579 0.61900002 5.6328163e-39
0.12262095 -0.063668579 0.61900002 4.7141026e-39
0.1238 -0.063668579 0.61900002 4.8062968e-39
0.12497904 -0.063668579 0.61900002 4.8062968e-39
0.1261581 -0.063668579 0.61900002 4.7141026e-39
0.12754285 -0.063771427 0.62 4.7141026e-39
0.12872382 -0.063771427 0.62 4.898491e-39
0.12990476 -0.063771427 0.62 4.7137438e-39
0.13129716 -0.063874289 0.62100005 4.6215496e-39
0.13248 -0.063874289 0.62100005 4.4382373e-39
0.13366286 -0.063874289 0.62100005 4.4382373e-39
0.13484572 -0.063874289 0.62100005 4.3453256e-39
0.13931429 -0.065417148 0.63600004 3.1468007e-39
0.14052571 -0.065417148 0.63600004 3.3279605e-39
0.1415143 -0.065314285 0.63500005 3.1435721e-39
0.14272383 -0.065314285 0.63500005 3.1435721e-39
0.14393334 -0.065314285 0.63500005 3.8811301e-39
0.14537144 -0.065417148 0.63600004 3.4241008e-39
0.14658286 -0.065417148 0.63600004 3.885072e-39
0.14779429 -0.065417148 0.63600004 3.8843545e-39
0.14900573 -0.065417148 0.63600004 3.8843545e-39
0.16604191 -0.072308578 0.70300001 4.7097978e-39
0.16738094 -0.072308578 0.70300001 1.9439709e-39
0.16872001 -0.072308578 0.70300001 1.8467544e-39
0.17030096 -0.072411433 0.70400006 1.7545602e-39
0.17164192 -0.072411433 0.70400006 1.4801299e-39
0.17396571 -0.072822854 0.708 1.5723241e-39
0.17580953 -0.073028579 0.71000004 1.2060584e-39
0.1771619 -0.073028579 0.71000004 1.2982526e-39
0.17876573 -0.073131427 0.71100003 1.2982526e-39
0.18062669 -0.073337145 0.71300006 1.482641e-39
0.18224001 -0.073440008 0.71400005 1.8492656e-39
0.18411429 -0.073645718 0.71600002 2.1258482e-39
0.18547809 -0.073645718 0.71600002 2.1280006e-39
0.18684191 -0.073645718 0.71600002 2.2201949e-39
0.18846856 -0.073748574 0.71700001 2.2201949e-39
0.18983428 -0.073748574 0.71700001 2.5889718e-39
0.1912 -0.073748574 0.71700001 3.2307483e-39
0.040152382 -0.068647623 0.68000001 1.0441278e-38
0.041447621 -0.068647623 0.68000001 1.0348759e-38
0.042680003 -0.068546668 0.67900002 1.0440954e-38
0.043908574 -0.06844572 0.67800003 1.044096e-38
0.04506667 -0.068243816 0.67600006 1.0533156e-38
0.04635429 -0.068243816 0.67600006 1.0992339e-38
0.047571428 -0.068142861 0.67500001 1.1084534e-38
0.048857141 -0.068142861 0.67500001 1.1358987e-38
0.050142858 -0.068142861 0.67500001 1.1174596e-38
0.051352382 -0.068041906 0.67400002 1.0806885e-38
0.052480005 -0.067840002 0.67200005 1.0622494e-38
0.053760003 -0.067840002 0.67200005 1.0438096e-38
0.054958098 -0.067739047 0.671 1.0253704e-38
0.056236189 -0.067739047 0.671 1.0068248e-38
0.057514284 -0.067739047 0.671 9.60727e-39
0.058792382 -0.067739047 0.671 9.6069071e-39
0.060070477 -0.067739047 0.671 9.0537333e-39
0.061348572 -0.067739047 0.671 8.9611874e-39
0.062626667 -0.067739047 0.671 9.053383e-39
0.063904762 -0.067739047 0.671 8.7767835e-39
0.065182857 -0.067739047 0.671 8.7767835e-39
0.066460945 -0.067739047 0.671 8.7767695e-39
0.067739047 -0.067739047 0.671 8.6845739e-39
0.069017142 -0.067739047 0.671 8.7767695e-39
0.070295237 -0.067739047 0.671 8.7767695e-39
0.071573332 -0.067739047 0.671 8.6849214e-39
0.072851434 -0.067739047 0.671 8.6849214e-39
0.074129522 -0.067739047 0.671 8.9597328e-39
0.075407617 -0.067739047 0.671 8.8675372e-39
0.076685719 -0.067739047 0.671 9.9691764e-39
0.077963807 -0.067739047 0.671 1.1259915e-38
0.079241909 -0.067739047 0.671 1.400434e-38
0.078600004 -0.066123806 0.65500003 1.2897992e-38
0.079847619 -0.066123806 0.65500003 1.3621247e-38
0.081095241 -0.066123806 0.65500003 1.2699291e-38
0.082217142 -0.066022858 0.65400004 1.2791139e-38
0.083462864 -0.066022858 0.65400004 1.2606748e-38
0.084708579 -0.066022858 0.65400004 1.2790057e-38
0.085954294 -0.066022858 0.65400004 1.2790057e-38
0.087066673 -0.065921903 0.65300006 1.2789692e-38
0.088175237 -0.065820955 0.65200001 1.2974083e-38
0.089417145 -0.065820955 0.65200001 1.2512752e-38
0.090659045 -0.065820955 0.65200001 1.2051774e-38
0.091619052 -0.065619051 0.65000004 1.2142527e-38
0.092857152 -0.065619051 0.65000004 1.2050332e-38
0.094095238 -0.065619051 0.65000004 1.1498227e-38
0.095333338 -0.065619051 0.65000004 1.1313836e-38
0.096422866 -0.065518104 0.64900005 1.0580224e-38
0.097659051 -0.065518104 0.64900005 1.0303637e-38
0.098742858 -0.065417148 0.648 9.7529715e-39
0.099977143 -0.065417148 0.648 9.5685802e-39
0.10121143 -0.065417148 0.648 9.017542e-39
0.10244571 -0.065417148 0.648 8.7409551e-39
0.10368 -0.065417148 0.648 8.0084123e-39
0.10475238 -0.065316193 0.64700001 7.4552385e-39
0.10598476 -0.065316193 0.64700001 6.8130641e-39
0.10721715 -0.065316193 0.64700001 5.6145209e-39
0.10828191 -0.065215245 0.64600003 2.0436985e-39
0.10951239 -0.065215245 0.64600003 9.5115375e-39
0.11074286 -0.065215245 0.64600003 1.0989154e-38
0.11162667 -0.065013342 0.64400005 1.3017457e-38
0.11285334 -0.065013342 0.64400005 1.2008567e-38
0.11408001 -0.065013342 0.64400005 1.0902237e-38
0.11226286 -0.063297145 0.62700003 1.1453995e-38
0.11309524 -0.063095234 0.625 1.2099364e-38
0.11373715 -0.062792383 0.62200004 1.2648207e-38
0.11492191 -0.062792383 0.62200004 9.1448065e-39
0.11592001 -0.062691435 0.62100005 8.4990882e-39
0.11710286 -0.062691435 0.62100005 6.1020382e-39
0.11828572 -0.062691435 0.62100005 5.8218682e-39
0.11927619 -0.06259048 0.62 4.9921202e-39
0.12045714 -0.06259048 0.62 5.1739975e-39
0.1216381 -0.06259048 0.62 4.8974148e-39
0.12281905 -0.06259048 0.62 4.7141026e-39
0.1238 -0.062489521 0.61900002 4.7141026e-39
0.12497904 -0.062489521 0.61900002 4.8062968e-39
0.12636191 -0.06259048 0.62 4.7141026e-39
0.12754285 -0.06259048 0.62 4.8062968e-39
0.12872382 -0.06259048 0.62 4.7141026e-39
0.13011429 -0.062691435 0.62100005 4.7137438e-39
0.13150859 -0.062792383 0.62200004 4.6215496e-39
0.13269334 -0.062792383 0.62200004 4.6229845e-39
0.1338781 -0.062792383 0.62200004 4.6229845e-39
0.13832 -0.064306669 0.63700002 4.3456844e-39
0.13975239 -0.064407617 0.63800001 2.593994e-39
0.14096762 -0.064407617 0.63800001 2.8673481e-39
0.14173715 -0.064205714 0.63600004 3.236125e-39
0.14294858 -0.064205714 0.63600004 3.1435721e-39
0.14416 -0.064205714 0.63600004 3.512349e-39
0.14537144 -0.064205714 0.63600004 4.43465e-39
0.14658286 -0.064205714 0.63600004 4.8956212e-39
0.14779429 -0.064205714 0.63600004 4.8952624e-39
0.14900573 -0.064205714 0.63600004 4.3420971e-39
0.16604191 -0.070969522 0.70300001 4.2491854e-39
0.16738094 -0.070969522 0.70300001 1.3911643e-39
0.16872001 -0.070969522 0.70300001 1.202471e-39
0.17030096 -0.071070485 0.70400006 1.3868623e-39
0.17164192 -0.071070485 0.70400006 1.0213112e-39
0.17396571 -0.071474291 0.708 1.1135054e-39
0.17580953 -0.071676195 0.71000004 1.2982526e-39
0.1771619 -0.071676195 0.71000004 1.2982526e-39
0.17851429 -0.071676195 0.71000004 1.7567126e-39
0.18012001 -0.07177715 0.71100003 1.9411011e-39
0.18224001 -0.072080001 0.71400005 1.6670295e-39
0.18411429 -0.072281905 0.71600002 1.7592237e-39
0.18547809 -0.072281905 0.71600002 2.1258482e-39
0.18684191 -0.072281905 0.71600002 2.4946252e-39
0.18820572 -0.072281905 0.71600002 2.6808073e-39
0.18956953 -0.072281905 0.71600002 3.0495842e-39
0.1912 -0.072382852 0.71700001 3.6917166e-39
0.041386668 -0.067253336 0.67900002 1.0257269e-38
0.042680003 -0.067253336 0.67900002 1.0257269e-38
0.043908574 -0.067154288 0.67800003 1.0532427e-38
0.04506667 -0.0669562 0.67600006 1.0716818e-38
0.04635429 -0.0669562 0.67600006 1.0716468e-38
0.047571428 -0.066857144 0.67500001 1.0900859e-38
0.048857141 -0.066857144 0.67500001 1.1174952e-38
0.050068572 -0.066758096 0.67400002 1.099056e-38
0.051352382 -0.066758096 0.67400002 1.0347712e-38
0.052480005 -0.066560008 0.67200005 1.0347712e-38
0.053679999 -0.066460945 0.671 1.0346267e-38
0.054958098 -0.066460945 0.671 1.0161876e-38
0.056236189 -0.066460945 0.671 1.0160447e-38
0.057514284 -0.066460945 0.671 9.6994685e-39
0.058704764 -0.066361904 0.67000002 9.790948e-39
0.059980955 -0.066361904 0.67000002 9.3299699e-39
0.061257143 -0.066361904 0.67000002 9.0537361e-39
0.062533334 -0.066361904 0.67000002 9.0537361e-39
0.063809521 -0.066361904 0.67000002 8.8693421e-39
0.065085717 -0.066361904 0.67000002 8.7771464e-39
0.066361904 -0.066361904 0.67000002 8.8686092e-39
0.067638099 -0.066361904 0.67000002 8.7764136e-39
0.068914287 -0.066361904 0.67000002 8.7767695e-39
0.070190482 -0.066361904 0.67000002 8.7767695e-39
0.071466669 -0.066361904 0.67000002 9.0522648e-39
0.072742864 -0.066361904 0.67000002 9.0522648e-39
0.074129522 -0.066460945 0.671 9.0522676e-39
0.075407617 -0.066460945 0.671 9.0522676e-39
0.076685719 -0.066460945 0.671 1.0062807e-38
0.077963807 -0.066460945 0.671 1.0984763e-38
0.079241909 -0.066460945 0.671 1.281296e-38
0.078600004 -0.064876191 0.65500003 9.4939176e-39
0.079847619 -0.064876191 0.65500003 1.1870577e-38
0.081095241 -0.064876191 0.65500003 1.1870577e-38
0.082217142 -0.064777151 0.65400004 1.1685502e-38
0.083462864 -0.064777151 0.65400004 1.1777698e-38
0.084708579 -0.064777151 0.65400004 1.1776969e-38
0.085954294 -0.064777151 0.65400004 1.1776969e-38
0.087066673 -0.064678095 0.65300006 1.1685127e-38
0.088175237 -0.064579047 0.65200001 1.1685127e-38
0.089417145 -0.064579047 0.65200001 1.150182e-38
0.090659045 -0.064579047 0.65200001 1.1409624e-38
0.091619052 -0.064380959 0.65000004 1.1134114e-38
0.092857152 -0.064380959 0.65000004 1.0396549e-38
0.094095238 -0.064380959 0.65000004 1.067241e-38
0.095333338 -0.064380959 0.65000004 1.0395823e-38
0.096422866 -0.064281903 0.64900005 9.9366438e-39
0.097659051 -0.064281903 0.64900005 9.660057e-39
0.098895252 -0.064281903 0.64900005 8.9253618e-39
0.099977143 -0.064182855 0.648 8.7409705e-39
0.10121143 -0.064182855 0.648 8.1002548e-39
0.10244571 -0.064182855 0.648 7.9158636e-39
0.10368 -0.064182855 0.648 7.5492292e-39
0.10475238 -0.064083807 0.64700001 6.7194686e-39
0.10598476 -0.064083807 0.64700001 5.0688889e-39
0.10721715 -0.064083807 0.64700001 4.700112e-39
0.10828191 -0.063984767 0.64600003 1.3143955e-39
0.10951239 -0.063984767 0.64600003 1.0165163e-38
0.11074286 -0.063984767 0.64600003 1.1178589e-38
0.11162667 -0.063786671 0.64400005 1.1086394e-38
0.11285334 -0.063786671 0.64400005 1.1178819e-38
0.11408001 -0.063786671 0.64400005 1.1455402e-38
0.11226286 -0.062102858 0.62700003 1.1821724e-38
0.11309524 -0.061904762 0.625 1.1637333e-38
0.11373715 -0.061607622 0.62200004 1.1080922e-38
0.11492191 -0.061607622 0.62200004 7.8540873e-39
0.11592001 -0.061508577 0.62100005 8.2185594e-39
0.11710286 -0.061508577 0.62100005 6.005898e-39
0.11828572 -0.061508577 0.62100005 5.6367623e-39
0.11946858 -0.061508577 0.62100005 4.9914027e-39
0.12045714 -0.061409526 0.62 5.0818033e-39
0.1216381 -0.061409526 0.62 4.989609e-39
0.12281905 -0.061409526 0.62 4.8062968e-39
0.124 -0.061409526 0.62 4.8062968e-39
0.12518096 -0.061409526 0.62 4.8062968e-39
0.12656572 -0.061508577 0.62100005 4.7141026e-39
0.12774858 -0.061508577 0.62100005 4.7137438e-39
0.12893143 -0.061508577 0.62100005 4.7137438e-39
0.13032381 -0.061607622 0.62200004 4.4382373e-39
0.13150859 -0.061607622 0.62200004 4.4382373e-39
0.13269334 -0.061607622 0.62200004 4.3467606e-39
0.1338781 -0.061607622 0.62200004 3.8857894e-39
0.13832 -0.063093334 0.63700002 3.6077718e-39
0.13953334 -0.063093334 0.63700002 2.5936353e-39
0.14074668 -0.063093334 0.63700002 2.8673481e-39
0.14218286 -0.063192382 0.63800001 3.236125e-39
0.14317334 -0.063093334 0.63700002 2.5943528e-39
0.14438666 -0.063093334 0.63700002 3.4241022e-39
0.14560001 -0.063093334 0.63700002 3.8847132e-39
0.14681333 -0.063093334 0.63700002 4.4378786e-39
0.14802667 -0.063093334 0.63700002 4.1609372e-39
0.14924 -0.063093334 0.63700002 3.699966e-39
0.16604191 -0.069630474 0.70300001 4.2481092e-39
0.16738094 -0.069630474 0.70300001 1.3900881e-39
0.16872001 -0.069630474 0.70300001 1.4769013e-39
0.17030096 -0.069729529 0.70400006 1.6612912e-39
0.17164192 -0.069729529 0.70400006 1.2035472e-39
0.17372 -0.070026666 0.70700002 1.2957415e-39
0.17531429 -0.070125714 0.708 1.2060584e-39
0.17666286 -0.070125714 0.708 1.5748353e-39
0.17851429 -0.07032381 0.71000004 1.5748353e-39
0.17986669 -0.07032381 0.71000004 1.6670295e-39
0.18198477 -0.070620961 0.71300006 1.7595825e-39
0.18360001 -0.070720002 0.71400005 1.7595825e-39
0.18496001 -0.070720002 0.71400005 2.1280006e-39
0.18684191 -0.070918098 0.71600002 2.4045833e-39
0.18820572 -0.070918098 0.71600002 2.6808073e-39
0.18956953 -0.070918098 0.71600002 2.95739e-39
0.1912 -0.071017146 0.71700001 3.3236557e-39
0.041386668 -0.065960005 0.67900002 1.0072525e-38
0.042680003 -0.065960005 0.67900002 1.0072525e-38
0.043908574 -0.065862864 0.67800003 1.0440587e-38
0.04506667 -0.065668575 0.67600006 1.0532783e-38
0.046285715 -0.065571427 0.67500001 1.0624272e-38
0.047571428 -0.065571427 0.67500001 1.0624272e-38
0.048784763 -0.065474287 0.67400002 1.0898714e-38
0.049920004 -0.065280005 0.67200005 1.0898714e-38
0.051200002 -0.065280005 0.67200005 1.0898359e-38
0.052401904 -0.065182857 0.671 1.0898359e-38
0.053679999 -0.065182857 0.671 1.1082023e-38
0.054876193 -0.065085717 0.67000002 1.0436654e-38
0.056152385 -0.065085717 0.67000002 1.0068251e-38
0.057428572 -0.065085717 0.67000002 9.7916641e-39
0.058704764 -0.065085717 0.67000002 9.790948e-39
0.059980955 -0.065085717 0.67000002 9.6065568e-39
0.061257143 -0.065085717 0.67000002 9.1459388e-39
0.062533334 -0.065085717 0.67000002 8.8693519e-39
0.063619047 -0.064891428 0.66800004 8.8693421e-39
0.064891428 -0.064891428 0.66800004 8.8693421e-39
0.066361904 -0.065085717 0.67000002 8.7767835e-39
0.067638099 -0.065085717 0.67000002 8.6845879e-39
0.068708576 -0.064891428 0.66800004 8.7767695e-39
0.069980957 -0.064891428 0.66800004 8.7767695e-39
0.071253337 -0.064891428 0.66800004 8.7767695e-39
0.072742864 -0.065085717 0.67000002 8.7767695e-39
0.074019045 -0.065085717 0.67000002 8.9600817e-39
0.07529524 -0.065085717 0.67000002 9.144473e-39
0.076571427 -0.065085717 0.67000002 9.6961894e-39
0.077847622 -0.065085717 0.67000002 1.1632298e-38
0.07912381 -0.065085717 0.67000002 1.3281447e-38
0.078600004 -0.063628577 0.65500003 7.6575132e-39
0.079847619 -0.063628577 0.65500003 9.1183108e-39
0.081095241 -0.063628577 0.65500003 5.9836593e-39
0.082217142 -0.063531436 0.65400004 8.2742512e-39
0.083462864 -0.063531436 0.65400004 8.6430338e-39
0.084708579 -0.063531436 0.65400004 9.0125197e-39
0.085954294 -0.063531436 0.65400004 9.4734979e-39
0.087066673 -0.063434288 0.65300006 9.6586206e-39
0.088175237 -0.06333714 0.65200001 9.8430119e-39
0.089417145 -0.06333714 0.65200001 9.6604227e-39
0.090659045 -0.06333714 0.65200001 9.4760314e-39
0.091619052 -0.063142858 0.65000004 9.3834757e-39
0.092857152 -0.063142858 0.65000004 9.1068888e-39
0.094095238 -0.063142858 0.65000004 8.6455323e-39
0.095333338 -0.063142858 0.65000004 8.5533367e-39
0.096422866 -0.063045718 0.64900005 8.2781791e-39
0.097659051 -0.063045718 0.64900005 8.1859835e-39
0.098895252 -0.063045718 0.64900005 7.6360397e-39
0.099977143 -0.06294857 0.648 7.4516484e-39
0.10121143 -0.06294857 0.648 7.2704941e-39
0.10244571 -0.06294857 0.648 7.1782985e-39
0.10368 -0.06294857 0.648 6.261698e-39
0.10491429 -0.06294857 0.648 4.6943723e-39
0.10614857 -0.06294857 0.648 1.6695406e-39
0.10721715 -0.062851429 0.64700001 6.4637036e-39
0.10828191 -0.062754288 0.64600003 7.0258527e-39
0.10951239 -0.062754288 0.64600003 1.2649786e-38
0.11040001 -0.06256 0.64400005 1.2188724e-38
0.11162667 -0.06256 0.64400005 1.0344811e-38
0.11285334 -0.06256 0.64400005 1.1084131e-38
0.11408001 -0.06256 0.64400005 1.2282674e-38
0.11226286 -0.060908575 0.62700003 1.2556405e-38
0.11309524 -0.060714286 0.625 9.9749273e-39
0.11410286 -0.060617145 0.62400001 9.1458827e-39
0.11510667 -0.060520001 0.62300003 6.1956674e-39
0.11610667 -0.06042286 0.62200004 5.454885e-39
0.11729144 -0.06042286 0.62200004 4.6251369e-39
0.11828572 -0.060325719 0.62100005 4.8062968e-39
0.11946858 -0.060325719 0.62100005 4.8062968e-39
0.12045714 -0.060228571 0.62 4.7141026e-39
0.1216381 -0.060228571 0.62 4.898491e-39
0.12281905 -0.060228571 0.62 4.8062968e-39
0.124 -0.060228571 0.62 4.8062968e-39
0.12538287 -0.060325719 0.62100005 4.7141026e-39
0.12656572 -0.060325719 0.62100005 4.6219083e-39
0.12774858 -0.060325719 0.62100005 4.6215496e-39
0.12893143 -0.060325719 0.62100005 4.6215496e-39
0.13032381 -0.06042286 0.62200004 4.4385961e-39
0.13150859 -0.06042286 0.62200004 4.4385961e-39
0.13269334 -0.06042286 0.62200004 4.2534901e-39
0.13832 -0.06188 0.63700002 2.5904067e-39
0.13953334 -0.06188 0.63700002 2.5904067e-39
0.14074668 -0.06188 0.63700002 2.4060183e-39
0.14218286 -0.061977144 0.63800001 2.8669894e-39
0.14317334 -0.06188 0.63700002 2.686547e-39
0.14438666 -0.06188 0.63700002 3.6084935e-39
0.14560001 -0.06188 0.63700002 3.97619e-39
0.14681333 -0.06188 0.63700002 4.1605785e-39
0.14802667 -0.06188 0.63700002 4.1609372e-39
0.14924 -0.06188 0.63700002 3.5155776e-39
0.16604191 -0.068291426 0.70300001 4.4310627e-39
0.16738094 -0.068291426 0.70300001 1.2964589e-39
0.16896002 -0.068388574 0.70400006 1.0177238e-39
0.17030096 -0.068388574 0.70400006 1.2021151e-39
0.17164192 -0.068388574 0.70400006 1.202471e-39
0.17372 -0.068679996 0.70700002 1.2946667e-39
0.17531429 -0.068777144 0.708 1.2060584e-39
0.17666286 -0.068777144 0.708 1.3904468e-39
0.17801143 -0.068777144 0.708 1.7595825e-39
0.17986669 -0.068971433 0.71000004 1.7595825e-39
0.18147428 -0.069068573 0.71100003 2.0358064e-39
0.18334286 -0.069262862 0.71300006 1.9436122e-39
0.18496001 -0.069360003 0.71400005 2.1280006e-39
0.18684191 -0.069554292 0.71600002 2.4967776e-39
0.042617142 -0.064571433 0.67800003 1.0073231e-38
0.043779049 -0.064380959 0.67600006 1.0072525e-38
0.04506667 -0.064380959 0.67600006 1.0256916e-38
0.046285715 -0.06428571 0.67500001 1.0439878e-38
0.047571428 -0.06428571 0.67500001 1.0624269e-38
0.048784763 -0.064190477 0.67400002 1.0898711e-38
0.049920004 -0.064000003 0.67200005 1.0898711e-38
0.051123809 -0.063904762 0.671 1.0806169e-38
0.052401904 -0.063904762 0.671 1.1082756e-38
0.053679999 -0.063904762 0.671 1.1357189e-38
0.054876193 -0.063809521 0.67000002 1.0435233e-38
0.056152385 -0.063809521 0.67000002 1.0160084e-38
0.057428572 -0.063809521 0.67000002 9.6991055e-39
0.058704764 -0.063809521 0.67000002 9.6065568e-39
0.059980955 -0.063809521 0.67000002 9.5143612e-39
0.061257143 -0.063809521 0.67000002 9.4225186e-39
0.062346671 -0.063619047 0.66800004 9.2381274e-39
0.063619047 -0.063619047 0.66800004 9.2377616e-39
0.064891428 -0.063619047 0.66800004 9.0533704e-39
0.066163816 -0.063619047 0.66800004 8.7767695e-39
0.067436196 -0.063619047 0.66800004 8.8689651e-39
0.068708576 -0.063619047 0.66800004 8.8686092e-39
0.069980957 -0.063619047 0.66800004 8.8686092e-39
0.071253337 -0.063619047 0.66800004 9.2363057e-39
0.072525725 -0.063619047 0.66800004 9.1441101e-39
0.074019045 -0.063809521 0.67000002 9.0522676e-39
0.07529524 -0.063809521 0.67000002 9.3288545e-39
0.076342858 -0.063619047 0.66800004 8.8703944e-39
0.077615239 -0.063619047 0.66800004 1.043772e-38
0.07912381 -0.063809521 0.67000002 1.2273428e-38
0.078839995 -0.062571429 0.65700001 9.4153636e-39
0.080091432 -0.062571429 0.65700001 7.1922386e-39
0.081095241 -0.062380951 0.65500003 4.6107876e-39
0.082342863 -0.062380951 0.65500003 6.8988348e-39
0.083462864 -0.062285714 0.65400004 7.083226e-39
0.084708579 -0.062285714 0.65400004 7.4505792e-39
0.085954294 -0.062285714 0.65400004 7.6349705e-39
0.087066673 -0.062190477 0.65300006 8.2789204e-39
0.088175237 -0.062095243 0.65200001 8.4633116e-39
0.089417145 -0.062095243 0.65200001 8.3750719e-39
0.090659045 -0.062095243 0.65200001 8.1906806e-39
0.091900952 -0.062095243 0.65200001 8.0070054e-39
0.092857152 -0.061904762 0.65000004 7.361636e-39
0.094095238 -0.061904762 0.65000004 7.3601815e-39
0.095333338 -0.061904762 0.65000004 7.0835946e-39
0.096422866 -0.061809525 0.64900005 7.2683362e-39
0.097659051 -0.061809525 0.64900005 7.1761405e-39
0.098895252 -0.061809525 0.64900005 7.3608821e-39
0.10013144 -0.061809525 0.64900005 7.4530777e-39
0.10121143 -0.061714288 0.648 6.8102321e-39
0.10244571 -0.061714288 0.648 6.4414495e-39
0.10368 -0.061714288 0.648 5.434796e-39
0.10491429 -0.061714288 0.648 4.7894364e-39
0.10614857 -0.061714288 0.648 3.8778973e-40
0.10721715 -0.061619051 0.64700001 7.4868434e-39
0.10828191 -0.061523814 0.64600003 1.0344144e-38
0.10951239 -0.061523814 0.64600003 1.191147e-38
0.11040001 -0.06133334 0.64400005 1.154585e-38
0.11162667 -0.06133334 0.64400005 1.0808285e-38
0.11285334 -0.06133334 0.64400005 9.7040731e-39
0.11106858 -0.059714291 0.62700003 1.1179203e-38
0.11226286 -0.059714291 0.62700003 1.2555346e-38
0.11309524 -0.05952381 0.625 8.959716e-39
0.11410286 -0.059428573 0.62400001 8.7731597e-39
0.11510667 -0.059333336 0.62300003 5.8229444e-39
0.11610667 -0.059238099 0.62200004 6.188134e-39
0.11729144 -0.059238099 0.62200004 5.4505802e-39
0.11828572 -0.059142862 0.62100005 5.4480691e-39
0.11946858 -0.059142862 0.62100005 5.3558748e-39
0.12065144 -0.059142862 0.62100005 5.3562336e-39
0.12183429 -0.059142862 0.62100005 5.2640393e-39
0.12301715 -0.059142862 0.62100005 4.7141026e-39
0.1242 -0.059142862 0.62100005 4.7141026e-39
0.12538287 -0.059142862 0.62100005 4.6215496e-39
0.12676953 -0.059238099 0.62200004 4.6215496e-39
0.12795429 -0.059238099 0.62200004 4.6219083e-39
0.12913905 -0.059238099 0.62200004 4.6219083e-39
0.13032381 -0.059238099 0.62200004 4.3467606e-39
0.13150859 -0.059238099 0.62200004 3.9779837e-39
0.13269334 -0.059238099 0.62200004 4.2527727e-39
0.13796763 -0.061047625 0.64100003 2.5932766e-39
0.13897143 -0.060952388 0.64000005 2.7733602e-39
0.14019048 -0.060952388 0.64000005 2.8655545e-39
0.14140953 -0.060952388 0.64000005 2.5907654e-39
0.14262858 -0.060952388 0.64000005 3.5127105e-39
0.14384763 -0.060952388 0.64000005 2.9645646e-39
0.14506668 -0.060952388 0.64000005 3.4255372e-39
0.14628571 -0.060952388 0.64000005 3.7921603e-39
0.14750476 -0.060952388 0.64000005 4.068743e-39
0.14872381 -0.060952388 0.64000005 4.2531314e-39
0.1642343 -0.066761911 0.70100003 2.870218e-39
0.16556953 -0.066761911 0.70100003 3.3240145e-39
0.16738094 -0.066952385 0.70300001 1.3879357e-39
0.16896002 -0.067047626 0.70400006 1.0180826e-39
0.17030096 -0.067047626 0.70400006 1.202471e-39
0.17164192 -0.067047626 0.70400006 1.1102768e-39
0.17372 -0.067333341 0.70700002 1.4790579e-39
0.17531429 -0.067428574 0.708 1.2060584e-39
0.17666286 -0.067428574 0.708 1.6670295e-39
0.17801143 -0.067428574 0.708 1.300405e-39
0.17936 -0.067428574 0.708 1.3925992e-39
0.18147428 -0.067714289 0.71100003 2.0358064e-39
0.18334286 -0.067904763 0.71300006 2.1280006e-39
0.18496001 -0.068000004 0.71400005 2.2201949e-39
0.18632001 -0.068000004 0.71400005 2.5889718e-39
0.042617142 -0.063280001 0.67800003 1.0349092e-38
0.043779049 -0.063093342 0.67600006 1.0348379e-38
0.04506667 -0.063093342 0.67600006 1.0440575e-38
0.046285715 -0.063000001 0.67500001 1.071467e-38
0.047571428 -0.063000001 0.67500001 1.071467e-38
0.048784763 -0.062906668 0.67400002 1.0715039e-38
0.049920004 -0.062720001 0.67200005 1.0622843e-38
0.051123809 -0.062626667 0.671 1.0806164e-38
0.052401904 -0.062626667 0.671 1.0713968e-38
0.053600002 -0.062533334 0.67000002 1.0805447e-38
0.054876193 -0.062533334 0.67000002 1.0067882e-38
0.055984765 -0.062346671 0.66800004 1.0067888e-38
0.057257146 -0.062346671 0.66800004 9.6069099e-39
0.05852953 -0.062346671 0.66800004 9.6065568e-39
0.059801906 -0.062346671 0.66800004 9.5143612e-39
0.06107429 -0.062346671 0.66800004 9.4225186e-39
0.062346671 -0.062346671 0.66800004 9.2381274e-39
0.063523814 -0.062253337 0.66700006 9.3296013e-39
0.064794287 -0.062253337 0.66700006 9.3296013e-39
0.066064768 -0.062253337 0.66700006 9.145566e-39
0.067335241 -0.062253337 0.66700006 9.3299573e-39
0.068605714 -0.062253337 0.66700006 9.4217633e-39
0.069876194 -0.062253337 0.66700006 9.0529808e-39
0.071146674 -0.062253337 0.66700006 8.9611579e-39
0.072525725 -0.062346671 0.66800004 9.0533536e-39
0.073798098 -0.062346671 0.66800004 8.9611579e-39
0.075070478 -0.062346671 0.66800004 9.4221361e-39
0.076342858 -0.062346671 0.66800004 9.2384777e-39
0.077615239 -0.062346671 0.66800004 1.0529217e-38
0.078887627 -0.062346671 0.66800004 1.1724167e-38
0.079080001 -0.061506666 0.65900004 1.1724167e-38
0.080091432 -0.061319999 0.65700001 1.0056411e-38
0.081095241 -0.061133336 0.65500003 4.8012745e-39
0.082342863 -0.061133336 0.65500003 6.2613617e-39
0.083462864 -0.061040003 0.65400004 6.7223398e-39
0.084708579 -0.061040003 0.65400004 7.2704941e-39
0.085954294 -0.061040003 0.65400004 7.2704941e-39
0.087066673 -0.060946673 0.65300006 7.453103e-39
0.08831048 -0.060946673 0.65300006 7.0843204e-39
0.089417145 -0.060853332 0.65200001 7.3598129e-39
0.090659045 -0.060853332 0.65200001 7.3598129e-39
0.091900952 -0.060853332 0.65200001 7.1765161e-39
0.092857152 -0.060666669 0.65000004 7.0843204e-39
0.094095238 -0.060666669 0.65000004 7.1772265e-39
0.095333338 -0.060666669 0.65000004 7.1772265e-39
0.096571438 -0.060666669 0.65000004 6.9949736e-39
0.097659051 -0.060573336 0.64900005 6.8105824e-39
0.098895252 -0.060573336 0.64900005 6.6251121e-39
0.10013144 -0.060573336 0.64900005 6.7173078e-39
0.10136762 -0.060573336 0.64900005 5.1557302e-39
0.10260382 -0.060573336 0.64900005 3.6806001e-39
0.10368 -0.060480002 0.648 1.8524941e-39
0.10491429 -0.060480002 0.648 5.8168978e-39
0.10614857 -0.060480002 0.648 7.1165685e-39
0.10721715 -0.060386669 0.64700001 1.2556111e-38
0.10844953 -0.060386669 0.64700001 1.2096143e-38
0.10951239 -0.060293335 0.64600003 9.7912521e-39
0.11040001 -0.060106672 0.64400005 9.4274877e-39
0.11162667 -0.060106672 0.64400005 1.0994812e-38
0.11285334 -0.060106672 0.64400005 1.1728756e-38
0.11124572 -0.058613334 0.62800002 1.1452173e-38
0.11226286 -0.05852 0.62700003 1.1357827e-38
0.11309524 -0.058333334 0.625 7.5778634e-39
0.11410286 -0.05824 0.62400001 6.6537687e-39
0.11510667 -0.058146667 0.62300003 4.9020783e-39
0.11629333 -0.058146667 0.62300003 5.1743562e-39
0.11748 -0.058146667 0.62300003 4.9899678e-39
0.1184762 -0.058053337 0.62200004 5.1725626e-39
0.11966096 -0.058053337 0.62200004 5.0803683e-39
0.12065144 -0.057960004 0.62100005 5.1725626e-39
0.12183429 -0.057960004 0.62100005 5.0803683e-39
0.12301715 -0.057960004 0.62100005 4.7141026e-39
0.1242 -0.057960004 0.62100005 4.6219083e-39
0.12558477 -0.058053337 0.62200004 4.6215496e-39
0.12676953 -0.058053337 0.62200004 4.6215496e-39
0.12795429 -0.058053337 0.62200004 4.4385961e-39
0.12913905 -0.058053337 0.62200004 4.4385961e-39
0.13053334 -0.058146667 0.62300003 4.6219083e-39
0.13171999 -0.058146667 0.62300003 2.9624122e-39
0.13674667 -0.059826672 0.64100003 2.4982125e-39
0.13796763 -0.059826672 0.64100003 2.1294356e-39
0.13918857 -0.059826672 0.64100003 2.3127478e-39
0.14040953 -0.059826672 0.64100003 2.773719e-39
0.14163049 -0.059826672 0.64100003 2.5907654e-39
0.14262858 -0.059733339 0.64000005 3.4205177e-39
0.14384763 -0.059733339 0.64000005 3.1471594e-39
0.14506668 -0.059733339 0.64000005 3.5159363e-39
0.14628571 -0.059733339 0.64000005 4.068743e-39
0.14773524 -0.059826672 0.64100003 4.2531314e-39
0.14895619 -0.059826672 0.64100003 4.8030682e-39
0.164 -0.065333337 0.70000005 2.9591836e-39
0.16533333 -0.065333337 0.70000005 2.7712078e-39
0.16690478 -0.06542667 0.70100003 1.203906e-39
0.16872001 -0.065613329 0.70300001 1.0180826e-39
0.17005904 -0.065613329 0.70300001 1.1102768e-39
0.17164192 -0.06570667 0.70400006 1.1102768e-39
0.1734743 -0.065893337 0.70600003 1.4790579e-39
0.17506666 -0.065986671 0.70700002 1.3904468e-39
0.17641334 -0.065986671 0.70700002 1.5748353e-39
0.17776 -0.065986671 0.70700002 1.7595825e-39
0.17936 -0.066080004 0.708 1.7595825e-39
0.18121906 -0.066266671 0.71000004 2.1280006e-39
0.18282858 -0.066360004 0.71100003 2.1280006e-39
0.18470097 -0.066546671 0.71300006 2.2201949e-39
0.18632001 -0.066640005 0.71400005 2.4967776e-39
0.043779049 -0.061805718 0.67600006 9.9785118e-39
0.04506667 -0.061805718 0.67600006 1.043949e-38
0.046285715 -0.061714288 0.67500001 1.0530995e-38
0.047571428 -0.061714288 0.67500001 1.0530995e-38
0.048784763 -0.061622858 0.67400002 1.0530291e-38
0.049920004 -0.061440006 0.67200005 1.0530291e-38
0.051123809 -0.061348572 0.671 1.0622127e-38
0.052401904 -0.061348572 0.671 1.0529931e-38
0.053600002 -0.061257143 0.67000002 1.0161163e-38
0.054876193 -0.061257143 0.67000002 9.7923802e-39
0.055984765 -0.06107429 0.66800004 9.974996e-39
0.057257146 -0.06107429 0.66800004 9.3296266e-39
0.05852953 -0.06107429 0.66800004 9.6983895e-39
0.059801906 -0.06107429 0.66800004 9.5139982e-39
0.06107429 -0.06107429 0.66800004 9.4214467e-39
0.062253337 -0.060982861 0.66700006 9.4214467e-39
0.063523814 -0.060982861 0.66700006 9.0544522e-39
0.064794287 -0.060982861 0.66700006 9.0544522e-39
0.066064768 -0.060982861 0.66700006 8.9622538e-39
0.067335241 -0.060982861 0.66700006 8.8700581e-39
0.068605714 -0.060982861 0.66700006 9.0537165e-39
0.069876194 -0.060982861 0.66700006 8.8693253e-39
0.071146674 -0.060982861 0.66700006 8.9611579e-39
0.072525725 -0.06107429 0.66800004 8.9611579e-39
0.073798098 -0.06107429 0.66800004 9.0533564e-39
0.074958101 -0.060982861 0.66700006 9.145552e-39
0.076228581 -0.060982861 0.66700006 9.0540822e-39
0.077499054 -0.060982861 0.66700006 1.0252625e-38
0.078769527 -0.060982861 0.66700006 1.0896577e-38
0.079560012 -0.060617145 0.66300005 1.0712185e-38
0.080335245 -0.06025143 0.65900004 1.0706112e-38
0.081342861 -0.06006857 0.65700001 4.8977876e-39
0.082342863 -0.059885718 0.65500003 6.7251564e-39
0.083590478 -0.059885718 0.65500003 6.540768e-39
0.084708579 -0.059794288 0.65400004 7.0896678e-39
0.085954294 -0.059794288 0.65400004 7.0896678e-39
0.087066673 -0.059702858 0.65300006 7.3630401e-39
0.08831048 -0.059702858 0.65300006 7.1786488e-39
0.089554287 -0.059702858 0.65300006 7.3608821e-39
0.090798102 -0.059702858 0.65300006 7.2686865e-39
0.09204191 -0.059702858 0.65300006 7.085384e-39
0.09314286 -0.059611432 0.65200001 6.9009928e-39
0.094384767 -0.059611432 0.65200001 6.9928283e-39
0.095626667 -0.059611432 0.65200001 6.9006326e-39
0.096571438 -0.059428573 0.65000004 6.5347116e-39
0.097809531 -0.059428573 0.65000004 6.4425159e-39
0.098895252 -0.059337147 0.64900005 6.3524545e-39
0.10013144 -0.059337147 0.64900005 5.7070851e-39
0.10136762 -0.059337147 0.64900005 2.7676205e-39
0.10260382 -0.059337147 0.64900005 2.8598147e-39
0.10384 -0.059337147 0.64900005 5.7289565e-40
0.10491429 -0.059245713 0.648 6.0124294e-39
0.10614857 -0.059245713 0.648 9.1466576e-39
0.10721715 -0.059154283 0.64700001 1.1543744e-38
0.10828191 -0.059062857 0.64600003 1.154515e-38
0.10917334 -0.058880005 0.64400005 9.9778238e-39
0.11040001 -0.058880005 0.64400005 8.23255e-39
0.11162667 -0.058880005 0.64400005 1.0260827e-38
0.11004952 -0.057417143 0.62800002 1.2740477e-38
0.11124572 -0.057417143 0.62800002 1.0619977e-38
0.11226286 -0.057325713 0.62700003 9.7894487e-39
0.11309524 -0.057142857 0.625 6.3782622e-39
0.11428571 -0.057142857 0.625 7.0185995e-39
0.11529142 -0.057051428 0.62400001 5.7278803e-39
0.11648 -0.057051428 0.62400001 5.633175e-39
0.11766857 -0.057051428 0.62400001 5.2643981e-39
0.11866667 -0.056960002 0.62300003 5.0800096e-39
0.11985334 -0.056960002 0.62300003 4.9878154e-39
0.12104 -0.056960002 0.62300003 4.4378786e-39
0.12222668 -0.056960002 0.62300003 4.4378786e-39
0.12321524 -0.056868576 0.62200004 4.6219083e-39
0.12440001 -0.056868576 0.62200004 4.6219083e-39
0.12578666 -0.056960002 0.62300003 4.3467606e-39
0.12697333 -0.056960002 0.62300003 4.3467606e-39
0.12816 -0.056960002 0.62300003 4.3460431e-39
0.12934667 -0.056960002 0.62300003 4.2538489e-39
0.13053334 -0.056960002 0.62300003 4.6211909e-39
0.13171999 -0.056960002 0.62300003 2.4085294e-39
0.13674667 -0.058605716 0.64100003 2.4949839e-39
0.13796763 -0.058605716 0.64100003 2.6793723e-39
0.13918857 -0.058605716 0.64100003 2.7730015e-39
0.14040953 -0.058605716 0.64100003 3.1417784e-39
0.14163049 -0.058605716 0.64100003 3.2357663e-39
0.14285143 -0.058605716 0.64100003 3.4201548e-39
0.14407238 -0.058605716 0.64100003 3.2393536e-39
0.14529334 -0.058605716 0.64100003 3.7925218e-39
0.1465143 -0.058605716 0.64100003 3.97619e-39
0.14773524 -0.058605716 0.64100003 4.4371625e-39
0.14895619 -0.058605716 0.64100003 4.8952624e-39
0.16329715 -0.063725717 0.69700003 2.9591836e-39
0.16462477 -0.063725717 0.69700003 2.6790136e-39
0.16666669 -0.064000003 0.70000005 1.203906e-39
0.16824001 -0.064091437 0.70100003 1.1102768e-39
0.17005904 -0.064274281 0.70300001 1.2946667e-39
0.17164192 -0.064365722 0.70400006 9.2911693e-40
0.17298287 -0.064365722 0.70400006 1.0213112e-39
0.17481905 -0.064548574 0.70600003 1.2056996e-39
0.17616382 -0.064548574 0.70600003 1.3900881e-39
0.17776 -0.06464 0.70700002 1.5748353e-39
0.17910668 -0.06464 0.70700002 1.9436136e-39
0.18121906 -0.064914286 0.71000004 2.1280006e-39
0.18257144 -0.064914286 0.71000004 2.2201949e-39
0.18470097 -0.065188579 0.71300006 2.3123891e-39
0.18632001 -0.065280005 0.71400005 2.5889718e-39
0.042491432 -0.060518101 0.67600006 1.0162889e-38
0.043779049 -0.060518101 0.67600006 9.8866819e-39
0.044999998 -0.060428571 0.67500001 1.0255464e-38
0.046285715 -0.060428571 0.67500001 1.0346957e-38
0.047571428 -0.060428571 0.67500001 1.0439152e-38
0.048784763 -0.060339049 0.67400002 1.0438096e-38
0.049920004 -0.060160004 0.67200005 1.03459e-38
0.051123809 -0.060070477 0.671 9.5175589e-39
0.052323811 -0.059980955 0.67000002 8.7799939e-39
0.053600002 -0.059980955 0.67000002 9.6075811e-39
0.054712381 -0.059801906 0.66800004 1.0990516e-38
0.055984765 -0.059801906 0.66800004 1.135574e-38
0.057257146 -0.059801906 0.66800004 8.7742626e-39
0.058441911 -0.059712384 0.66700006 9.0540991e-39
0.059712384 -0.059712384 0.66700006 9.2384903e-39
0.060982861 -0.059712384 0.66700006 9.3296013e-39
0.062253337 -0.059712384 0.66700006 9.3296013e-39
0.063523814 -0.059712384 0.66700006 9.3299573e-39
0.064794287 -0.059712384 0.66700006 9.145566e-39
0.066064768 -0.059712384 0.66700006 8.869705e-39
0.067335241 -0.059712384 0.66700006 8.869705e-39
0.068605714 -0.059712384 0.66700006 9.0537165e-39
0.069876194 -0.059712384 0.66700006 8.9615209e-39
0.071146674 -0.059712384 0.66700006 8.8696812e-39
0.072417155 -0.059712384 0.66700006 8.9618768e-39
0.073687628 -0.059712384 0.66700006 9.0544256e-39
0.074958101 -0.059712384 0.66700006 9.0544256e-39
0.076228581 -0.059712384 0.66700006 9.1466282e-39
0.077499054 -0.059712384 0.66700006 9.699802e-39
0.078651428 -0.059622858 0.66600001 9.7912689e-39
0.079680003 -0.059443813 0.66400003 9.7912689e-39
0.080700956 -0.059264764 0.66200006 1.0063206e-38
0.081590481 -0.058996193 0.65900004 6.5597808e-39
0.082594283 -0.058817141 0.65700001 4.252421e-39
0.083590478 -0.0586381 0.65500003 3.4226659e-39
0.0848381 -0.0586381 0.65500003 5.6210089e-39
0.085954294 -0.058548577 0.65400004 5.8975958e-39
0.087200001 -0.058548577 0.65400004 6.5386352e-39
0.088445716 -0.058548577 0.65400004 6.5386352e-39
0.089691438 -0.058548577 0.65400004 6.9974582e-39
0.090937153 -0.058548577 0.65400004 6.8130669e-39
0.09204191 -0.058459051 0.65300006 6.7183966e-39
0.093285725 -0.058459051 0.65300006 6.5340053e-39
0.094529532 -0.058459051 0.65300006 6.5339927e-39
0.095773347 -0.058459051 0.65300006 6.3496014e-39
0.096868567 -0.058369525 0.65200001 5.8911134e-39
0.098110475 -0.058369525 0.65200001 5.4301352e-39
0.099047624 -0.058190476 0.65000004 3.961482e-39
0.10028572 -0.058190476 0.65000004 3.5927051e-39
0.10136762 -0.058100957 0.64900005 1.2125155e-39
0.10260382 -0.058100957 0.64900005 6.4676566e-39
0.10384 -0.058100957 0.64900005 8.4054758e-39
0.10491429 -0.058011428 0.648 1.1171345e-38
0.10598476 -0.057921905 0.64700001 1.0161146e-38
0.10721715 -0.057921905 0.64700001 9.7923634e-39
0.10828191 -0.057832383 0.64600003 1.0624948e-38
0.10917334 -0.057653334 0.64400005 1.2007882e-38
0.11040001 -0.057653334 0.64400005 1.2098968e-38
0.11162667 -0.057653334 0.64400005 1.1914579e-38
0.11004952 -0.056220952 0.62800002 1.2095058e-38
0.11124572 -0.056220952 0.62800002 8.5916411e-39
0.1124419 -0.056220952 0.62800002 7.9455641e-39
0.11345714 -0.05613143 0.62700003 5.4563199e-39
0.11428571 -0.055952381 0.625 5.9122688e-39
0.11547619 -0.055952381 0.625 5.174715e-39
0.11666667 -0.055952381 0.625 4.9874567e-39
0.11785714 -0.055952381 0.625 4.9874567e-39
0.11904762 -0.055952381 0.625 5.0800096e-39
0.1202381 -0.055952381 0.625 4.9878154e-39
0.12142857 -0.055952381 0.625 4.4378786e-39
0.12261905 -0.055952381 0.625 4.3456844e-39
0.12380952 -0.055952381 0.625 4.6219083e-39
0.1248 -0.055862859 0.62400001 4.6219083e-39
0.12598857 -0.055862859 0.62400001 4.5307903e-39
0.12717713 -0.055862859 0.62400001 4.4385961e-39
0.12857142 -0.055952381 0.625 4.2545663e-39
0.1297619 -0.055952381 0.625 3.2404298e-39
0.13095237 -0.055952381 0.625 3.1435721e-39
0.13616002 -0.057653334 0.64400005 1.9450471e-39
0.13738668 -0.057653334 0.64400005 1.7595825e-39
0.13818286 -0.057474289 0.64200002 2.4049435e-39
0.13940571 -0.057474289 0.64200002 2.6808073e-39
0.14062858 -0.057474289 0.64200002 3.0495842e-39
0.14185143 -0.057474289 0.64200002 3.2357663e-39
0.14307429 -0.057474289 0.64200002 3.4201548e-39
0.14429715 -0.057474289 0.64200002 3.2393536e-39
0.14552 -0.057474289 0.64200002 3.6081305e-39
0.14697143 -0.057563812 0.64300001 3.97619e-39
0.14842667 -0.057653334 0.64400005 4.0683842e-39
0.14965335 -0.057653334 0.64400005 4.43465e-39
0.16329715 -0.062398098 0.69700003 2.4985712e-39
0.16462477 -0.062398098 0.69700003 2.5864607e-39
0.16619048 -0.062487617 0.69800001 1.2957415e-39
0.16824001 -0.062756196 0.70100003 1.0180826e-39
0.16957524 -0.062756196 0.70100003 1.2946667e-39
0.17139809 -0.062935241 0.70300001 9.2911693e-40
0.17298287 -0.063024767 0.70400006 9.2911693e-40
0.17481905 -0.063203812 0.70600003 9.2911693e-40
0.17616382 -0.063203812 0.70600003 1.2056996e-39
0.17750858 -0.063203812 0.70600003 1.575194e-39
0.17910668 -0.06329333 0.70700002 1.7595825e-39
0.18070857 -0.063382857 0.708 1.8517767e-39
0.18257144 -0.063561909 0.71000004 2.1283594e-39
0.18470097 -0.06383048 0.71300006 2.4971363e-39
0.18632001 -0.063920006 0.71400005 2.6815247e-39
0.043779049 -0.05923048 0.67600006 9.6104482e-39
0.044999998 -0.059142858 0.67500001 9.9792307e-39
0.046285715 -0.059142858 0.67500001 1.0438799e-38
0.047500957 -0.059055239 0.67400002 1.0346604e-38
0.048640002 -0.058880005 0.67200005 1.0162232e-38
0.049845714 -0.058792382 0.671 9.1480799e-39
0.051123809 -0.058792382 0.671 7.4017258e-39
0.052323811 -0.058704764 0.67000002 1.0351963e-38
0.053600002 -0.058704764 0.67000002 1.4297888e-38
0.054712381 -0.05852953 0.66800004 1.5219845e-38
0.055900957 -0.058441911 0.66700006 1.5217689e-38
0.057171434 -0.058441911 0.66700006 1.014693e-38
0.058441911 -0.058441911 0.66700006 8.1325281e-39
0.059712384 -0.058441911 0.66700006 8.6857019e-39
0.060982861 -0.058441911 0.66700006 9.0533704e-39
0.062159996 -0.058354285 0.66600001 9.2377616e-39
0.063428566 -0.058354285 0.66600001 9.0537361e-39
0.064697139 -0.058354285 0.66600001 9.0537361e-39
0.065965712 -0.058354285 0.66600001 8.9618908e-39
0.067234285 -0.058354285 0.66600001 8.9618908e-39
0.068502858 -0.058354285 0.66600001 8.9615209e-39
0.069771431 -0.058354285 0.66600001 8.8693253e-39
0.071040004 -0.058354285 0.66600001 8.7774827e-39
0.072308578 -0.058354285 0.66600001 8.961874e-39
0.073687628 -0.058441911 0.66700006 8.9615209e-39
0.074845709 -0.058354285 0.66600001 9.1459121e-39
0.076114282 -0.058354285 0.66600001 9.1459149e-39
0.077382855 -0.058354285 0.66600001 9.4225018e-39
0.078651428 -0.058354285 0.66600001 9.5150604e-39
0.079680003 -0.058179051 0.66400003 9.5150604e-39
0.080822863 -0.058091432 0.66300005 8.9608048e-39
0.081838094 -0.05791619 0.66100001 6.1027557e-39
0.082845718 -0.057740953 0.65900004 6.6501982e-39
0.083845712 -0.057565715 0.65700001 4.3453256e-39
0.0848381 -0.057390478 0.65500003 3.7867793e-39
0.086085722 -0.057390478 0.65500003 4.063362e-39
0.087200001 -0.057302859 0.65400004 5.1618118e-39
0.088445716 -0.057302859 0.65400004 5.0696162e-39
0.089691438 -0.057302859 0.65400004 5.8950609e-39
0.090937153 -0.057302859 0.65400004 5.8028652e-39
0.09218286 -0.057302859 0.65400004 5.8929127e-39
0.093285725 -0.05721524 0.65300006 5.7085214e-39
0.094529532 -0.05721524 0.65300006 5.6163258e-39
0.095773347 -0.05721524 0.65300006 4.9709564e-39
0.097017154 -0.05721524 0.65300006 4.6958072e-39
0.098110475 -0.057127621 0.65200001 5.0645841e-39
0.099047624 -0.056952383 0.65000004 2.309878e-39
0.10028572 -0.056952383 0.65000004 2.6786549e-39
0.10152382 -0.056952383 0.65000004 3.6117179e-39
0.10260382 -0.056864765 0.64900005 7.7605058e-39
0.10384 -0.056864765 0.64900005 9.3296168e-39
0.10491429 -0.056777142 0.648 1.0620356e-38
0.10598476 -0.056689527 0.64700001 9.7022879e-39
0.10721715 -0.056689527 0.64700001 1.0255462e-38
0.10828191 -0.056601908 0.64600003 1.0899752e-38
0.10917334 -0.05642667 0.64400005 1.2559273e-38
0.11040001 -0.05642667 0.64400005 1.3570216e-38
0.11162667 -0.05642667 0.64400005 1.1449717e-38
0.11040001 -0.055200007 0.63000005 1.0712142e-38
0.1116 -0.055200007 0.63000005 7.6696989e-39
0.11262095 -0.055112381 0.62900001 7.5746348e-39
0.11345714 -0.054937143 0.62700003 5.3619733e-39
0.11465143 -0.054937143 0.62700003 5.4505802e-39
0.11547619 -0.054761905 0.625 5.0818033e-39
0.11666667 -0.054761905 0.625 5.1725626e-39
0.11785714 -0.054761905 0.625 4.9881741e-39
0.11904762 -0.054761905 0.625 4.6219083e-39
0.1202381 -0.054761905 0.625 4.6219083e-39
0.12181715 -0.054937143 0.62700003 4.6219083e-39
0.12301143 -0.054937143 0.62700003 4.6219083e-39
0.12420572 -0.054937143 0.62700003 4.2545663e-39
0.125 -0.054761905 0.625 4.3467606e-39
0.12619047 -0.054761905 0.625 4.3460431e-39
0.12738095 -0.054761905 0.625 4.0694604e-39
0.12898286 -0.054937143 0.62700003 4.2527727e-39
0.13017714 -0.054937143 0.62700003 2.6854708e-39
0.13577142 -0.056777142 0.648 1.7595825e-39
0.13616002 -0.05642667 0.64400005 2.0361651e-39
0.13738668 -0.05642667 0.64400005 2.2205536e-39
0.13861334 -0.05642667 0.64400005 2.5893305e-39
0.13984001 -0.05642667 0.64400005 2.5907654e-39
0.14084762 -0.056339048 0.64300001 2.8673481e-39
0.14207238 -0.056339048 0.64300001 3.2357663e-39
0.14329715 -0.056339048 0.64300001 3.6967375e-39
0.14452191 -0.056339048 0.64300001 3.3319066e-39
0.14574666 -0.056339048 0.64300001 3.7928777e-39
0.1472 -0.05642667 0.64400005 3.8847132e-39
0.14842667 -0.05642667 0.64400005 3.9769075e-39
0.14965335 -0.05642667 0.64400005 4.43465e-39
0.16329715 -0.061070476 0.69700003 2.7751539e-39
0.16462477 -0.061070476 0.69700003 2.2201949e-39
0.16619048 -0.061158098 0.69800001 1.1138641e-39
0.16800001 -0.061333336 0.70000005 9.2839947e-40
0.16957524 -0.061420955 0.70100003 1.0205937e-39
0.17139809 -0.061596192 0.70300001 9.2911693e-40
0.17273715 -0.061596192 0.70300001 9.2911693e-40
0.17432381 -0.061683815 0.70400006 1.0213112e-39
0.17566477 -0.061683815 0.70400006 1.2056996e-39
0.17700572 -0.061683815 0.70400006 1.482641e-39
0.17885333 -0.061859049 0.70600003 1.7592237e-39
0.18070857 -0.062034287 0.708 1.7595825e-39
0.18257144 -0.062209532 0.71000004 2.1283594e-39
0.18418287 -0.062297143 0.71100003 2.4971363e-39
0.18605906 -0.062472388 0.71300006 2.6815247e-39
0.044999998 -0.057857141 0.67500001 9.5178882e-39
0.046217144 -0.057771433 0.67400002 9.1494953e-39
0.047500957 -0.057771433 0.67400002 9.0572996e-39
0.048640002 -0.057600003 0.67200005 8.4122749e-39
0.049845714 -0.057514284 0.671 7.21375e-39
0.051047619 -0.057428572 0.67000002 8.5041104e-39
0.052167624 -0.057257146 0.66800004 1.8275028e-38
0.053440001 -0.057257146 0.66800004 2.2312437e-38
0.054630477 -0.057171434 0.66700006 2.2312437e-38
0.055900957 -0.057171434 0.66700006 1.9548736e-38
0.057171434 -0.057171434 0.66700006 9.8681946e-39
0.058354285 -0.057085715 0.66600001 1.0492923e-39
